24.0269 7.65454 -3.939
25.4169 7.95122 1.20089
25.6947 7.32624 -4.61976
26.0562 8.7859 5.57435
25.8413 7.96183 4.87834
25.8061 7.97132 5.45558
26.9787 12.179 5.82224
26.7052 11.3816 5.23549
26.711 11.2859 5.82266
25.6085 9.13735 3.09226
25.3651 8.50039 2.148
25.5246 8.35693 2.99595
28.2006 15.4629 5.64646
27.8748 14.7316 5.28006
29.0654 17.7654 5.21124
27.6614 15.218 2.862
25.339 9.51946 -0.595418
25.3363 8.66733 -1.31468
25.2568 8.67128 -0.549583
26.1194 13.2583 0.0776741
25.9936 12.3386 -1.12788
26.3395 9.69257 -3.87312
26.0662 8.4521 -4.14918
25.8964 8.4549 -3.50789
26.7403 10.7661 -4.41179
27.0154 11.8057 -4.44179
27.3523 14.5726 -1.65158
27.9207 15.4187 -1.65256
29.1932 17.6171 -3.46725
28.6833 16.2704 -3.5709
28.5477 16.6046 1.83507
28.1287 16.0852 1.51701
29.4904 19.0252 4.48144
29.2677 18.3571 3.96546
29.5405 19.0502 1.78394
29.2315 18.1768 1.60221
30.417 19.4907 5.35095
32.1737 18.8985 5.3284
34.0544 18.3284 5.32411
35.9127 17.8714 5.41217
34.127 18.3521 2.98016
30.4898 19.5787 0.421977
31.3362 19.475 -3.42879
33.0268 18.7716 -1.05735
33.114 18.8671 -3.38082
36.6685 17.6991 4.21703
36.787 17.7579 1.67465
34.994 18.3584 -3.42209
36.8407 17.8251 -1.02717
36.7961 17.9642 -3.48089
36.582 14.5727 4.80767
35.2563 7.78821 5.63809
35.626 9.09984 5.76685
36.4917 10.5041 3.91444
36.7505 12.4917 3.41204
37.0749 15.6957 0.349105
37.3597 17.0105 0.0836473
36.7698 14.3982 -0.20066
37.1746 16.3093 -2.19053
37.3382 17.031 -2.63724
36.9861 15.6292 -3.40784
37.0776 12.9637 -1.2512
36.7708 13.7005 -1.58021
36.3792 12.612 -3.86793
36.4826 13.4239 -4.13829
37.0074 9.01314 2.36425
37.5332 10.0161 1.30988
34.6866 5.59191 4.50457
34.8762 6.40157 4.87294
35.2213 5.50431 2.24656
35.3843 5.52918 1.30964
35.9784 6.26726 1.62883
35.6787 9.16715 -4.1877
35.6151 9.16381 -4.76899
35.8549 10.0786 -4.6662
35.3372 5.67771 -1.50348
35.0774 5.74651 -2.38515
35.4712 6.45156 -2.46034
34.6246 5.80098 -4.13929
34.6032 5.75682 -4.71073
34.8439 6.58961 -4.76678
34.3007 4.56797 5.34787
35.6526 4.12822 4.18058
35.0436 5.24933 -0.494713
34.8927 4.69844 -3.87957
36.3237 4.76623 1.13068
36.3117 4.27814 -4.64901
36.8624 5.59064 5.42627
36.6299 4.84282 4.7687
36.568 4.79715 5.32055
38.2073 8.88096 5.66518
37.8182 8.17818 5.02747
37.8219 8.07595 5.6513
36.5906 5.95238 2.99689
36.3702 5.33409 2.06368
36.4415 5.21169 2.87075
39.7954 11.9465 5.58912
39.4132 11.2742 5.21332
40.8982 14.1653 5.14567
39.103 11.9396 2.71886
36.4202 6.32729 -0.568745
36.4383 5.53838 -1.35133
36.3755 5.52906 -0.585609
37.2963 10.0105 0.0281998
37.1587 9.07829 -1.16716
37.0876 6.3162 -3.62177
36.7607 5.34925 -4.1438
36.6991 5.34499 -3.52459
37.6822 7.59618 -4.61503
38.1193 8.57569 -4.51184
38.7472 11.2563 -1.86186
39.5045 12.1049 -1.84762
41.0349 14.0709 -3.58094
40.3793 12.7885 -3.69493
40.1855 13.1656 1.71061
39.7094 12.6969 1.40975
41.4795 15.3805 4.41388
41.1699 14.7587 3.88673
41.5234 15.4392 1.70809
41.1296 14.6256 1.49476
42.4609 15.7115 5.28573
44.1052 14.8957 5.25304
45.8875 14.1195 5.23898
47.6737 13.4281 5.32014
45.9846 14.1647 2.906
42.5207 15.8679 0.324201
43.36 15.6968 -3.53074
44.9729 14.7819 -1.12163
45.0783 14.8897 -3.46173
48.4135 13.1731 4.1037
48.5274 13.1982 1.56965
46.9061 14.1506 -3.47056
48.6025 13.2968 -1.07715
48.6482 13.5068 -3.49963
47.9227 10.0642 4.67367
45.7906 3.64308 5.48189
46.28 4.84071 5.57454
47.2622 6.01078 3.72493
47.7706 7.96729 3.28648
48.5075 11.1718 0.210994
48.9859 12.3994 -0.0262217
48.1313 9.93181 -0.301205
48.779 11.7832 -2.24496
49.0466 12.4943 -2.67433
48.5406 11.1597 -3.45925
48.1647 8.26989 -1.37209
48.0415 9.12549 -1.64714
47.6248 8.28805 -3.94707
47.8363 9.06435 -4.2286
47.4344 4.52074 2.23652
48.0345 5.46261 1.16393
44.8929 1.51855 4.33501
45.3237 2.35234 4.55453
45.2332 1.25213 2.18269
45.351 1.20746 1.20321
46.0963 1.84968 1.49975
46.4377 4.90079 -4.31374
46.4011 4.89276 -4.88472
46.7266 5.75576 -4.81425
45.6038 1.31795 -1.58272
45.4082 1.45601 -2.58789
45.8901 2.15008 -2.58251
45.0073 1.6996 -4.31601
45.0063 1.68636 -4.87991
45.3601 2.48002 -4.9565
44.3928 0.517818 5.27522
45.4473 0.115194 4.23485
45.052 0.916233 -0.558257
45.0892 0.521715 -4.00623
46.0877 0.83226 1.04768
46.3592 -0.0483851 -4.78285
46.8372 1.58879 5.34015
46.5467 0.876202 4.68072
46.4906 0.705071 5.27145
48.4181 4.9039 5.21625
48.0182 4.16058 4.6569
47.9841 4.11458 5.23753
46.4389 2.19244 2.7091
46.1398 1.47386 1.88659
46.2386 1.35615 2.68034
50.1965 7.86684 4.97094
49.7577 7.23803 4.59754
51.3987 9.95103 4.48665
49.5444 7.67906 2.12455
46.2887 2.25051 -0.835275
46.2479 1.33991 -1.58614
46.1375 1.47 -0.796455
47.6194 5.70974 -0.434175
47.3918 4.86127 -1.52904
47.1272 1.787 -4.07854
46.8312 0.942622 -4.39553
46.7068 0.902675 -3.8299
47.8522 3.1947 -4.91056
48.2537 4.17449 -4.8791
49.0623 6.86668 -2.35221
49.8224 7.66935 -2.27846
51.3809 9.55167 -4.21525
50.65 8.29841 -4.23454
50.5855 8.86584 1.07056
50.0767 8.38482 0.761199
51.9968 11.1184 3.72244
51.6655 10.487 3.2176
52.0058 11.1153 0.988173
51.5801 10.2968 0.816249
53.0011 11.4585 4.56557
54.646 10.6004 4.52092
56.414 9.74331 4.50265
58.1767 8.97068 4.59584
56.4835 9.67933 2.18996
53.0063 11.4443 -0.431249
53.7836 11.0391 -4.28725
55.3971 10.171 -1.88839
55.4746 10.1649 -4.22231
58.8788 8.60357 3.40654
58.9686 8.54256 0.884963
57.2772 9.33723 -4.2113
59.0166 8.51587 -1.78522
58.9916 8.62386 -4.22224
58.199 5.56169 4.18353
55.8173 -0.849255 5.33459
56.3745 0.37095 5.41224
57.4125 1.51456 3.57302
58.0001 3.4503 2.93866
58.8928 6.43876 -0.385684
59.387 7.66275 -0.684328
58.4059 5.28042 -0.911965
59.0839 6.94696 -2.89644
59.368 7.62934 -3.36376
58.7853 6.29438 -4.09545
58.3671 3.5808 -1.95318
58.2368 4.43742 -2.24347
57.8172 3.45451 -4.48363
57.9996 4.2182 -4.79814
57.6654 -0.00898165 1.92047
58.2659 0.796502 0.824844
54.8728 -2.9438 4.23775
55.3331 -2.15277 4.43195
55.5153 -3.21218 2.07261
55.6574 -3.25578 1.00543
56.2695 -2.66228 1.27752
56.4433 0.0747764 -4.65073
56.3734 0.0356225 -5.20053
56.7593 0.842047 -5.19362
55.4532 -3.21125 -1.86201
55.2117 -3.11012 -2.72653
55.7351 -2.42989 -2.82822
54.8844 -3.08119 -4.39366
54.8594 -3.12769 -4.97743
55.2456 -2.32322 -5.07619
54.249 -3.82505 5.20121
55.4111 -4.50854 4.07405
55.1246 -3.56488 -0.863096
54.8768 -4.30784 -4.08332
56.003 -4.05814 0.902608
56.1478 -5.00694 -4.88783
57.0455 -3.20881 5.23557
56.5884 -3.9673 4.62428
56.5888 -3.96871 5.1588
59.0838 -0.185211 5.1535
58.5544 -0.92794 4.66729
58.5422 -0.966542 5.24222
56.5778 -2.76888 2.87939
55.9986 -3.50732 1.85764
56.1684 -3.56894 2.75043
61.2167 2.52627 4.71515
60.7023 1.88128 4.42294
62.6978 4.41485 4.1671
60.477 2.18467 2.04323
56.3999 -2.62351 -0.899784
56.2212 -3.57291 -1.62344
56.1308 -3.39616 -0.804702
58.2694 0.610616 -0.598489
57.9597 -0.226279 -1.74728
57.1516 -3.26097 -4.06714
56.729 -4.13885 -4.49767
56.6836 -4.0525 -3.90331
58.191 -1.94548 -5.00077
58.7863 -1.10261 -5.00656
59.8643 1.60564 -2.54668
60.729 2.23968 -2.58885
62.6228 3.78172 -4.52389
61.6989 2.65441 -4.55434
61.6939 3.31554 0.879014
61.1233 2.91604 0.662414
63.4588 5.43173 3.36131
63.0323 4.83613 2.888
63.4614 5.32737 0.668413
62.9091 4.62034 0.512421
64.5059 5.64694 4.18512
65.9766 4.56141 4.17159
67.607 3.49376 4.17815
69.2487 2.49072 4.28654
67.6281 3.31864 1.86426
64.5048 5.48236 -0.727571
65.2188 4.90767 -4.57293
66.6557 3.82676 -2.14937
66.7425 3.7725 -4.46675
69.8701 1.99979 3.10177
69.9188 1.83884 0.608155
68.3642 2.68444 -4.45281
69.9784 1.73263 -2.03313
69.9559 1.74565 -4.46692
68.8732 -0.912001 3.9108
65.4547 -6.85317 5.1965
66.2296 -5.73186 5.25937
67.4737 -4.76765 3.39176
68.2676 -3.01034 2.70805
69.5444 -0.284349 -0.540004
70.2254 0.862305 -0.912349
68.9413 -1.51242 -0.955251
69.8313 0.121928 -3.08241
70.1978 0.739554 -3.57798
69.4033 -0.5372 -4.26486
68.6834 -3.04025 -2.00138
68.6645 -2.23107 -2.33149
67.9641 -3.18026 -4.5397
68.2843 -2.47925 -4.89141
67.5528 -6.42704 1.88771
68.229 -5.70894 0.896941
64.1094 -8.6729 4.24001
64.6914 -7.99775 4.35309
64.6402 -9.25377 1.94754
64.6961 -9.40581 0.986213
65.5933 -8.94377 1.2536
66.2219 -6.23802 -4.49363
66.1764 -6.2316 -5.03903
66.6276 -5.51428 -5.05218
64.6697 -9.34619 -1.76434
64.5741 -9.16403 -2.53584
65.1504 -8.61778 -2.67411
64.2375 -9.08295 -4.30417
64.2594 -9.10111 -4.86621
64.7434 -8.41555 -4.93907
63.472 -9.46133 5.18757
64.6397 -10.2232 4.18797
64.2135 -9.57597 -0.736363
64.1589 -10.1647 -3.98089
65.3803 -9.99548 1.00482
65.4903 -11.0673 -4.78199
66.6142 -9.12595 5.24751
66.1048 -9.78379 4.66382
65.979 -9.82308 5.23952
68.849 -6.50189 5.1301
68.2742 -7.18272 4.64388
68.2952 -7.14445 5.22671
66.174 -8.78224 2.8188
65.6187 -9.30811 1.78259
65.786 -9.46661 2.75394
71.094 -4.00004 4.69806
70.5748 -4.5852 4.36885
70.4234 -4.14068 1.83436
66.0826 -8.68029 -1.04125
65.8494 -9.58474 -1.76912
65.7346 -9.37542 -0.915637
68.3097 -5.67199 -0.6239
67.8624 -6.47274 -1.78154
66.2402 -10.1342 -3.91575
68.1121 -8.18595 -5.17429
69.8713 -5.04474 -2.52075
70.7236 -4.4569 -2.45773
72.5741 -2.99132 -4.51526
71.924 -3.75245 -4.70436
71.6548 -3.33447 0.806397
71.1128 -3.71154 0.499279
73.5025 -1.23493 3.31227
73.0443 -1.81049 2.85741
73.5039 -1.39882 0.629897
72.8935 -2.10556 0.498055
74.5375 -1.06746 4.16605
75.9532 -2.2552 4.21309
77.489 -3.45089 4.28177
79.0626 -4.53969 4.42542
77.5407 -3.62757 1.97985
74.5372 -1.33714 -0.770722
75.2577 -2.0053 -4.58941
76.6291 -3.1087 -2.14905
76.7164 -3.24273 -4.47359
79.6871 -5.06965 3.26517
79.7647 -5.25735 0.710158
78.2838 -4.43444 -4.4263
79.7971 -5.45236 -1.98071
79.8014 -5.49588 -4.40936
78.482 -7.91691 4.14275
74.7449 -13.6356 5.5616
75.5654 -12.4855 5.6239
76.8414 -11.8261 3.49487
77.8829 -10.0483 2.91384
79.2555 -7.37469 -0.525864
79.9926 -6.29322 -0.840305
78.5324 -8.54632 -0.909228
79.4317 -7.23931 -3.24928
79.9514 -6.52048 -3.54325
79.0715 -7.75869 -4.01118
78.1256 -10.1541 -1.83616
78.1502 -9.35247 -2.21302
77.5029 -10.252 -4.42425
77.8569 -9.5895 -4.78517
76.6562 -13.4223 2.08898
77.3874 -12.8154 0.990715
73.4032 -15.6325 4.64371
73.8833 -16.2323 2.62201
73.9791 -16.3627 1.52116
74.7818 -15.8022 1.70883
75.4147 -13.3334 -4.33478
75.3858 -13.3639 -4.87046
75.927 -12.6554 -4.89562
73.7452 -16.2693 -1.32009
73.5303 -16.1403 -2.18316
74.1535 -15.6121 -2.31652
73.0621 -16.0321 -3.89966
73.0755 -16.1378 -4.38509
73.6668 -15.4334 -4.55683
72.6062 -16.4996 5.56536
73.4818 -17.8119 4.15842
73.2877 -16.6583 -0.281795
72.8756 -17.3325 -3.36433
74.086 -18.5111 1.33376
73.7281 -18.4745 -3.92607
74.7237 -17.1192 5.06897
74.2222 -17.6824 4.48467
74.2396 -17.6865 5.13395
76.6621 -14.8702 4.91493
76.1627 -15.4514 4.31411
76.1708 -15.4334 4.94117
74.7046 -17.2417 2.5038
74.2867 -17.8882 1.91678
74.2511 -17.8331 2.52734
78.6531 -12.6163 4.91245
78.1606 -13.1796 4.4749
80.1459 -10.9365 4.47794
78.2182 -13.1496 2.09085
74.6625 -17.2625 -0.0417759
74.1891 -17.8921 -0.686864
74.208 -17.8612 -0.030392
76.7348 -14.8582 -0.138769
76.2781 -15.381 -0.511082
74.7393 -17.201 -2.65477
74.2331 -17.8235 -3.29977
74.203 -17.8476 -2.60322
75.4057 -16.4549 -3.62538
76.1401 -15.6042 -3.5693
77.6593 -13.8297 -1.07296
78.2647 -13.1529 -1.43781
79.9033 -11.3358 -3.73504
78.9496 -12.412 -3.55406
79.228 -12.0223 1.33215
78.725 -12.5937 1.06904
81.1233 -9.83455 3.87918
80.6455 -10.3875 3.3949
81.0729 -9.9319 1.2509
80.4438 -10.6514 1.1086
83.909 -11.293 4.73101
82.7759 -10.3046 4.31315
88.3773 -15.2846 4.77581
87.1936 -14.2259 4.7947
82.7548 -10.3683 1.86487
82.1051 -9.96741 -3.38286
82.6644 -10.4788 -4.00084
82.0974 -9.97999 -4.00779
82.1397 -9.92833 -1.14217
84.4317 -12.0339 -3.61612
84.9775 -12.5346 -4.05185
85.0437 -12.4191 1.2762
83.8999 -11.4097 1.04168
89.4408 -16.2586 3.92547
89.4448 -16.3513 1.20951
88.404 -15.4268 1.21045
87.6315 -14.8931 -3.5893
87.075 -14.4105 -4.05037
89.9309 -16.8652 -1.30642
89.3415 -16.3594 -1.77028
89.9478 -16.9473 -3.31112
89.9427 -16.967 -3.99215
89.3816 -16.4679 -3.92023
77.1527 -15.3097 5.54598
78.0745 -15.1662 5.53163
77.5502 -14.6653 5.52441
75.2412 -17.6627 5.68907
76.2161 -17.6061 5.65315
75.7386 -17.0434 5.63771
79.162 -17.4104 5.58394
80.1299 -17.3093 5.56854
79.6203 -16.7406 5.55941
82.9968 -12.2999 5.41506
82.724 -11.5879 5.39914
83.9287 -16.9002 5.52441
82.7037 -15.8585 5.50822
87.5544 -15.8254 5.4655
87.0582 -15.2943 5.45638
87.539 -19.4096 5.55677
83.3043 -18.5287 5.5723
83.0425 -19.4547 5.59857
84.2454 -18.5973 5.56597
84.1223 -22.626 5.6725
78.968 -18.8219 5.62255
79.2609 -19.5984 5.63718
79.9628 -18.756 5.60725
75.1349 -18.9974 5.72575
75.34 -19.7376 5.72528
76.0211 -18.9675 5.69673
76.1535 -22.0456 5.72706
76.3912 -22.8324 5.73936
77.1054 -22.0458 5.71373
80.6195 -25.3322 5.7736
80.813 -26.126 5.79637
81.4321 -25.4521 5.7725
77.0392 -25.3629 5.79344
77.2555 -26.2251 5.81915
77.9925 -25.4187 5.79134
78.0537 -29.1851 5.90358
78.7645 -28.9132 5.8915
76.9274 -31.0844 5.96833
75.8352 -26.8755 5.84334
75.8931 -28.6255 5.89599
74.4224 -24.762 5.7879
71.9885 -15.7634 6.27012
66.5472 -10.1526 5.93779
68.381 -11.2465 6.18142
68.8428 -7.49621 5.87215
70.739 -13.026 6.53682
72.27 -14.5544 6.3603
72.7084 -10.3225 6.33326
71.0987 -4.95031 5.37285
72.6485 -6.07332 5.42004
74.6108 -2.00529 4.83671
74.3272 -5.30327 5.15575
76.0589 -3.08391 4.92566
74.4259 -10.5645 6.07388
75.2175 -10.1536 5.9737
74.478 -9.50275 5.99551
74.3731 -12.5112 6.31918
74.3054 -11.5715 6.1778
77.6912 -7.07281 5.40471
78.468 -6.74085 5.35134
77.7438 -6.25959 5.27377
68.0808 -13.2635 6.55092
66.6423 -13.392 6.36816
65.6523 -11.4515 5.85738
64.9093 -11.616 5.79174
74.1215 -24.1469 5.77642
72.5512 -24.2468 5.77824
70.6858 -21.7281 5.78762
69.0182 -20.6099 5.86085
62.686 -8.98059 5.79594
58.745 -6.83693 6.08491
75.9703 -29.7177 5.92861
59.2148 -9.05887 6.10062
64.647 4.71474 4.83987
64.5718 1.449 5.12537
67.8628 0.838183 5.10148
68.0861 -0.1245 5.23363
68.8237 0.26837 5.16384
65.0896 -2.918 5.88903
65.012 -3.94217 5.91004
65.8192 -3.5382 5.84376
64.9472 -4.9746 5.92044
65.6129 -5.44821 6.01963
62.6299 -7.98914 5.87071
63.278 -3.74814 6.1842
61.6624 -6.64025 6.04477
62.9107 0.525533 5.4745
61.3014 1.59497 5.40822
59.363 -5.30371 6.0221
59.1989 -1.24928 5.84074
57.4266 -3.51549 5.8713
57.314 -4.47983 5.82787
53.2848 10.5304 5.17988
53.7474 7.14566 5.34322
57.0002 7.15811 5.34187
57.3007 6.22099 5.46518
58.0174 6.70157 5.42348
54.6722 3.00158 5.951
54.8348 1.97856 6.00536
55.5235 2.56272 5.96195
54.9509 0.943526 6.05748
55.0289 -0.152819 6.12253
55.6763 0.529388 6.15911
54.0665 -0.625776 6.08339
53.2885 1.82314 6.20605
52.2495 -1.61685 6.03848
52.2531 6.08143 5.60848
50.3741 6.88445 5.592
50.0868 -0.448653 6.15275
48.8499 4.63476 5.84635
48.9365 3.7305 5.83406
47.6436 1.43107 5.9157
47.3233 0.575203 5.87989
48.0156 0.428196 5.81357
57.9109 -7.68522 6.00855
54.138 -4.82957 5.76182
51.2781 -2.26158 6.00149
59.1136 -10.8468 5.83601
72.6309 -24.9953 5.79705
73.6048 -27.25 5.86015
65.0397 -17.2949 5.80122
66.1526 -18.6004 5.77723
64.6741 -18.9952 5.61129
48.8137 -3.88212 5.81273
50.9983 -4.10166 5.75165
43.6697 -2.76331 5.44376
44.4695 -3.14033 5.44343
70.8753 -24.6299 5.78842
68.9117 -23.6475 5.76301
58.4362 -13.5543 5.42602
58.6562 -14.9304 5.42528
54.1433 -13.1273 5.38729
41.9145 -4.04409 5.17034
42.2342 -5.44356 5.15554
43.6519 -0.372788 5.7603
42.8791 -1.21174 5.63342
35.1346 -3.33244 5.13614
32.5462 -2.90882 5.15525
18.6302 1.56981 5.10749
16.7378 1.56499 5.06028
19.0451 0.565621 5.07908
13.9292 1.16968 5.03245
11.4575 0.764266 5.02885
9.13697 1.28072 5.00769
11.0436 1.57095 5.01206
23.8121 1.79293 5.32502
25.8971 1.84527 5.44429
24.1695 2.87806 5.44683
39.1073 -4.67483 5.1554
40.3853 -3.67889 5.25375
38.797 -3.81985 5.20273
33.7811 0.572202 5.40882
35.3875 1.40142 5.45919
33.5342 1.53735 5.4741
21.1058 2.78031 5.27973
22.567 3.54948 5.4654
11.6767 2.27445 5.02602
29.5705 4 6.1218
31.7237 4.49438 6.07863
32.5087 5.08338 6.13641
33.5746 4.89925 6.0573
42.7489 14.7672 5.8721
43.2615 11.495 5.87864
46.5789 11.4807 5.93862
46.9572 10.5722 5.99994
47.6314 11.1023 6.00569
44.4918 7.36262 6.27327
44.6935 6.33645 6.26309
44.8297 5.34602 6.27092
45.0076 4.28402 6.32474
45.5962 5.0071 6.3479
43.9864 2.62188 6.16584
43.3941 1.7877 6.10639
42.7726 7.13981 6.57867
43.0537 6.0223 6.53638
41.3915 3.7418 6.70261
40.6173 2.90102 6.68079
41.8202 10.236 6.10081
40.0061 10.9474 6.18012
37.906 4.06549 6.05077
38.3221 7.83148 6.24183
37.1358 6.33122 6.13301
30.8255 18.6045 5.9535
31.7645 15.446 6.01731
35.0728 15.8136 6.07261
35.5827 14.9425 6.14197
36.1683 15.5613 6.1325
33.5473 11.3901 6.5027
33.8364 10.3804 6.46683
34.1239 9.42302 6.457
34.4286 8.33483 6.44861
34.9159 9.16179 6.52635
33.4349 6.67581 6.33088
33.0872 5.83739 6.21156
31.797 10.1061 6.7617
30.2506 6.93282 6.6564
30.4472 14.0554 6.2715
28.5163 14.5129 6.26884
28.0723 7.53554 6.30824
27.28 11.1565 6.43622
22.0835 5.18393 5.71737
14.2044 2.95519 5.10753
6.12581 1.67311 5.00043
15.1338 4.37429 5.29642
21.4634 7.92492 6.13976
4.12182 1.39667 4.99962
13.8224 5.73156 5.26116
15.8577 6.81299 5.66255
14.6283 8.99363 5.70358
16.1599 9.47317 5.93832
14.7544 12.7839 5.8595
18.7332 9.30453 6.41769
21.6982 8.85755 6.22504
21.792 9.8965 6.27905
19.3908 12.513 6.54631
15.183 16.1937 5.69464
17.1362 16.1512 5.82406
16.5487 20.6371 5.40284
18.1135 17.7603 5.57729
18.3573 20.5798 5.47517
21.1446 13.3016 6.35596
21.6309 14.1759 6.29434
20.6853 14.2664 6.32602
22.5106 11.1663 6.45568
21.8966 11.9981 6.32951
21.9393 18.2221 5.89115
22.3965 18.934 5.84862
21.5139 18.92 5.75858
11.2677 6.27905 5.10262
11.0341 7.96458 5.13239
4.49069 2.78821 4.9951
3.7236 3.2252 4.99375
0.556036 0.64459 5.00099
0.863786 3.29953 4.99078
1.24309 1.94708 4.99243
4.46911 4.87571 4.99473
3.66769 5.478 4.9941
3.74391 4.32801 4.9938
0.672162 8.0058 4.99752
1.31144 6.59449 4.99349
6.67687 7.41055 5.00569
6.70235 6.3592 5.00191
10.2706 8.39812 5.10657
9.47237 9.51328 5.06301
9.57612 7.90221 5.08011
8.12834 11.3517 5.01628
7.15595 11.8676 5.0089
6.71846 10.8611 5.01096
1.01477 12.3662 5.00079
0.609591 13.0417 5.0018
0.810862 11.597 5.001
4.12264 14.3127 4.9993
3.40627 15.0951 4.99961
3.75684 13.5531 4.99975
1.00238 17.5822 5.00263
2.26014 18.3878 4.99886
2.28453 19.1968 4.99786
1.52881 19.1853 4.99971
5.23329 15.4501 4.99813
5.25243 16.292 4.99751
4.4904 16.1357 4.99818
5.27667 18.6404 4.99451
5.2835 19.3907 4.99316
4.53297 19.2717 4.994
8.29892 13.1211 5.00386
8.32975 14.7282 4.99897
7.57847 14.1578 4.99981
10.9898 9.9522 5.07645
11.2302 11.9874 5.02127
10.5717 11.5236 5.02712
11.2819 16.0448 4.99267
11.3892 17.9093 4.98897
10.7139 16.7488 4.99203
83.5531 -15.1398 -4.5201
84.0778 -14.5534 -4.53947
81.8827 -14.5932 -4.51929
82.1298 -13.2374 -4.55562
83.2253 -12.0778 -4.59458
83.852 -12.5408 -4.58871
82.1434 -22.4522 -4.32051
82.166 -21.6445 -4.3423
80.2572 -23.9857 -4.26658
79.5168 -24.0504 -4.26091
79.0907 -22.329 -4.30898
79.8777 -21.4807 -4.3343
72.6791 -10.815 -5.98829
74.7679 -10.3635 -5.62934
75.5364 -3.24144 -5.19656
37.3284 0.761953 -5.41767
40.3821 -3.30967 -5.06487
35.6209 -2.12914 -4.92504
34.0023 -1.71817 -4.92074
5.30891 8.67078 -5.00461
5.32082 9.79823 -5.0044
3.77778 7.70867 -5.00019
2.94155 8.34753 -5.00029
3.03708 10.6991 -4.99935
3.8098 11.1616 -5.00053
19.6015 12.6081 -5.7431
21.1123 14.2497 -5.32132
18.0224 20.6207 -4.66413
11.3478 16.0412 -5.00589
11.2495 16.8641 -5.00737
9.96801 14.5859 -5.00157
9.2201 14.5567 -5.00139
8.93774 16.0604 -5.00287
9.65063 16.8456 -5.00489
18.0438 3.81347 -5.33028
32.0261 18.4435 -4.11173
33.7965 11.779 -5.06453
32.0626 10.6744 -5.55794
43.9396 14.5984 -4.21418
44.6935 7.72013 -5.22042
42.5055 6.9602 -5.72661
24.8931 3.29067 -4.97108
28.1787 3.81048 -5.35724
35.8176 2.7845 -5.14735
41.5858 1.58456 -5.8749
54.3035 9.89193 -4.94003
55.2353 2.56577 -5.70347
53.7438 1.49989 -6.06203
65.5644 3.67595 -5.18996
65.2676 -3.4072 -5.55235
63.3432 -3.9679 -5.90877
62.9279 -10.0894 -5.38476
63.878 -11.733 -5.16437
84.559 -24.0063 3.04897
87.1432 -21.1799 1.01671
86.5495 -21.8053 3.2465
80.3989 -28.5269 0.298374
80.4469 -28.5135 -1.11229
82.8321 -25.9769 -1.73613
82.4746 -26.3362 -0.533488
45.0979 -9.42326 1.6619
46.8414 -10.1717 2.62808
54.9384 -14.8434 0.590709
61.5645 -19.3182 1.39666
61.5826 -19.2067 3.03136
57.9224 -16.5931 3.29124
19.5268 -1.18262 -0.773894
24.8735 -2.09336 -0.60012
20.1976 -1.2082 -2.0112
34.9674 -5.1549 -1.99477
-0.0204935 8.93469 2.33317
0.0197374 5.09286 0.402568
0.0113983 5.94921 2.60885
-0.0129861 15.036 -0.565072
-0.0158476 14.9562 -1.97228
-0.0289443 11.4529 -2.49803
-0.028895 11.8812 -1.35481
5.35502 19.9596 2.1316
3.85622 19.9684 0.909697
3.10319 19.9739 0.295357
3.06272 19.9757 1.86699
3.81281 19.9704 2.48712
10.3087 19.9143 -0.7673
9.33674 19.9245 -0.766594
11.5227 19.8966 -1.79598
11.3239 19.8995 -2.46557
9.71787 19.92 -2.44377
11.9556 12.7953 -2.81523
11.9872 15.6419 -2.52442
13.9795 14.7223 2.97214
13.2317 13.0167 1.6091
13.1403 12.1603 0.535783
13.6098 12.0709 2.66772
13.8774 12.8704 3.3763
15.2889 19.9207 -0.51391
15.1294 18.9614 -0.579528
15.4997 20.9426 -1.99449
15.3075 19.301 -2.29922
19.3697 21.1444 1.88694
17.7312 21.2836 0.979384
17.3855 21.2692 1.93994
21.2517 21.0196 0.0768007
19.4842 21.1641 -1.01216
23.1916 18.7058 3.30477
23.3608 18.2836 1.56519
23.3407 19.0314 1.44999
23.2246 20.2692 3.03808
24.9368 11.5878 0.13267
24.7553 12.4668 -0.958796
24.2006 11.4344 -2.53437
23.9348 12.3159 -3.0661
24.0582 14.147 -2.51188
26.9055 13.3615 3.5935
25.7915 11.9415 2.10627
25.4756 11.1217 0.886744
25.9665 10.7992 3.32293
26.46 11.5586 4.07353
29.2983 18.2496 0.0817235
28.9396 17.3876 0.0275672
29.6905 19.2321 -1.38713
29.1471 17.7097 -1.72647
33.601 18.5319 2.34364
32.013 19.0343 1.47296
31.69 19.0894 2.4669
35.3595 18.1306 0.544942
33.593 18.613 -0.52697
36.8322 15.2805 3.58509
36.8713 14.9377 1.84836
37.0221 15.6777 1.78382
37.2157 16.8363 3.40419
36.908 7.92791 0.1907
37.0256 8.91296 -0.908761
36.1568 8.10683 -2.52093
36.0789 9.07632 -3.02402
36.6438 10.887 -2.45515
38.1719 10.0999 3.51653
36.8596 8.70881 2.06694
36.5287 7.89491 0.998065
37.0004 7.64042 3.13996
37.5368 8.34847 3.88732
41.1879 14.6712 -0.0391551
40.7526 13.8473 -0.123003
41.692 15.6112 -1.49723
41.0092 14.1668 -1.82342
45.5084 14.419 2.29412
43.9633 15.1345 1.40787
43.6624 15.2094 2.3981
47.1755 13.763 0.461913
45.5149 14.5217 -0.588841
48.2611 10.7667 3.44751
48.2298 10.459 1.72553
48.481 11.1281 1.62791
48.8352 12.2388 3.28494
47.2882 3.46907 0.0914876
47.5282 4.38624 -0.978523
46.7183 3.75381 -2.57196
46.7543 4.77379 -3.2144
47.5413 6.32586 -2.47681
48.4745 6.01158 2.9725
47.1513 4.66524 1.52391
46.722 3.89824 0.567622
47.1044 3.71933 2.71894
47.7164 4.3582 3.42714
51.6074 10.3036 -0.707765
51.1178 9.47835 -0.739521
52.1295 11.1258 -2.23486
51.3528 9.66914 -2.49478
56.0025 9.95451 1.56679
54.4452 10.7006 0.66095
54.1425 10.8387 1.65446
57.6351 9.14247 -0.25689
55.9424 9.92808 -1.35172
58.6028 6.17309 2.90361
58.5451 5.77811 1.16786
58.8376 6.44476 1.04191
59.2555 7.61201 2.63901
57.4725 -1.13462 -0.150994
57.6836 -0.222685 -1.27897
56.7118 -0.927587 -2.8822
56.8261 -0.0129977 -3.45746
57.7197 1.60343 -2.91609
59.3415 0.758516 2.91886
57.7077 -0.207976 1.49215
57.082 -0.926127 0.422347
57.5337 -1.26745 2.90006
58.315 -0.718378 3.58518
62.9533 4.57257 -1.01263
62.3443 3.83589 -1.02909
63.5979 5.28337 -2.53214
62.6205 3.96824 -2.79652
67.1649 3.61404 1.24782
65.7791 4.52908 0.362341
65.5165 4.72324 1.33838
68.6653 2.55641 -0.535754
67.1504 3.51105 -1.60685
69.255 -0.389156 2.64793
69.1134 -0.865126 0.968826
69.4982 -0.199896 0.841465
70.0946 0.949473 2.35979
67.111 -7.59617 -0.230544
67.3789 -6.75679 -1.32401
66.2972 -7.22495 -2.73315
66.546 -6.38314 -3.33798
67.7474 -4.87389 -2.9627
69.1453 -5.5613 2.79166
67.5634 -6.40368 1.46585
66.8153 -7.02539 0.473677
67.2033 -7.36107 2.80324
68.0594 -6.92312 3.45196
72.9257 -2.17867 -1.02585
72.2784 -2.90045 -1.04179
73.629 -1.51202 -2.5636
72.5831 -2.77499 -2.79509
77.1141 -3.29916 1.34337
75.7971 -2.3215 0.363175
75.549 -2.09653 1.33577
78.5733 -4.49259 -0.464585
77.1087 -3.44601 -1.59159
78.9745 -7.43998 2.8415
78.872 -7.89983 1.09798
79.2778 -7.24691 0.948736
79.8788 -6.13068 2.52494
76.0742 -14.5945 -0.0141977
76.5387 -13.8476 -1.1113
75.4453 -14.3375 -2.56008
75.7614 -13.4674 -3.19859
77.021 -12.0202 -2.82891
77.1752 -14.3224 2.65652
76.1706 -15.4864 1.47694
75.6663 -16.0713 0.884696
75.6647 -16.0663 2.45901
76.1638 -15.4755 3.05349
80.422 -10.6995 -0.35991
79.7839 -11.4224 -0.336638
81.209 -9.8168 -1.41511
81.0743 -9.98064 -2.07861
80.0249 -11.1752 -2.02379
86.8729 -14.174 -2.38213
84.7462 -12.2634 -2.11987
80.1367 -15.0918 5.51012
79.5942 -14.567 5.50192
81.3755 -14.1232 5.4754
81.4397 -13.0535 5.44796
80.1809 -12.0124 5.43224
79.6515 -12.5444 5.45045
79.0516 -22.0757 5.69645
79.8082 -21.2332 5.67145
79.5412 -23.7746 5.73591
80.5686 -23.7988 5.73093
82.1129 -22.0918 5.67434
81.8463 -21.2265 5.654
71.4746 -9.3287 6.3366
71.3969 -7.18846 5.68835
77.8207 -4.54742 5.06821
66.4108 -17.0445 6.10668
68.0058 2.40835 4.95258
61.6539 -0.665943 5.72773
62.0133 -2.66763 6.18396
56.9463 8.69675 5.24005
51.1966 4.60271 5.88397
52.0528 2.36665 6.25687
53.7444 -7.54371 5.50119
50.3829 -4.92492 5.67476
51.2254 -6.64624 5.42437
46.2785 -4.1497 5.47546
49.1302 -8.20783 5.24536
51.9353 -8.79156 5.32098
46.4521 13.0565 5.92548
40.4794 8.73229 6.22107
40.7224 6.94713 6.4256
34.7483 17.3564 6.02769
29.4922 12.4886 6.43889
30.2092 10.5691 6.66955
25.9617 6.34781 5.90522
24.0216 5.91866 5.76045
14.5338 6.34987 5.44416
17.7338 12.7649 6.32114
16.6603 14.527 5.97346
20.6358 20.3715 5.59587
5.26178 9.87565 5.00356
5.22843 8.74103 5.00008
3.75555 11.1171 5.00058
2.98044 10.7587 4.99968
3.03748 8.35916 4.9975
3.75758 7.7643 4.9973
9.02621 17.4961 4.99268
8.30144 16.7336 4.99451
9.03262 19.1556 4.99011
8.28252 19.2045 4.99006
6.76902 17.8611 4.99364
6.76318 17.0759 4.99502
87.7643 -16.1396 -4.53273
87.2185 -15.539 -4.54344
86.6539 -17.3175 -4.49225
85.7175 -17.2917 -4.48405
84.6798 -16.1631 -4.50437
85.2015 -15.5531 -4.52467
80.4715 -14.81 -4.50161
78.4682 -17.2199 -4.43399
77.5043 -17.2426 -4.43299
77.7547 -15.0575 -4.47533
78.3525 -14.1354 -4.50047
78.1382 -19.0018 -4.39588
77.157 -19.0199 -4.4055
78.637 -20.6515 -4.35288
77.8724 -21.4879 -4.32998
75.9446 -21.5032 -4.33565
75.6968 -20.733 -4.37176
86.3895 -18.8523 -4.45007
85.4392 -18.945 -4.43858
85.6266 -21.784 -4.36799
83.8259 -21.6539 -4.35444
83.6237 -20.8194 -4.37464
79.9206 -25.8607 -4.21208
78.9445 -25.8497 -4.20777
80.3205 -27.5475 -4.1652
77.553 -28.3852 -4.12792
77.3496 -27.4637 -4.15607
74.7673 -22.305 -4.31404
75.3213 -27.1201 -4.15617
73.1691 -21.0733 -4.39357
74.8179 -26.2508 -4.18014
73.852 -25.995 -4.18487
69.4767 -16.1277 -5.26551
71.373 -15.6025 -5.18451
72.2551 -15.1318 -5.2498
73.9624 -14.4587 -5.37674
68.6196 -12.3109 -5.69734
68.8154 -10.2898 -5.63946
70.6274 -11.532 -5.99068
76.1828 -9.29898 -5.34218
77.8277 -8.57973 -5.18916
76.4026 -5.5484 -5.09426
78.0757 -5.13027 -5.0615
72.5394 -7.38281 -5.84318
73.6313 -7.04302 -5.66108
70.9973 -6.12437 -5.72382
73.0458 -4.80346 -5.31127
73.7938 -5.37815 -5.2464
14.2336 1.80824 -5.00551
14.1631 1.05619 -4.96075
21.2906 -0.0598842 -4.91863
45.3015 -3.16352 -5.09562
44.8393 -4.41391 -5.02068
47.9013 -2.19892 -5.50376
47.0958 -4.53384 -5.2233
46.0457 -4.95614 -5.0661
53.4483 -10.2495 -4.85726
56.4197 -10.1165 -5.20407
58.5451 -11.8087 -5.1165
59.9351 -16.4556 -4.52917
58.9293 -16.4158 -4.54735
66.7026 -20.7547 -4.34864
68.4918 -21.6002 -4.33634
66.836 -19.7862 -4.41672
67.1747 -18.642 -4.60665
51.2248 -8.99846 -4.84819
52.0454 -8.72994 -4.85604
48.3661 -6.60176 -5.0109
48.0651 -4.79173 -5.36297
50.4675 -3.70922 -5.80733
51.7234 -5.11268 -5.36123
70.1645 -22.7427 -4.28238
65.2817 -16.3012 -4.97195
3.24283 15.4091 -4.9994
2.50152 15.9875 -4.99878
2.7258 12.7202 -4.9988
0.720256 13.9081 -4.99561
8.96496 9.63137 -5.03221
8.2665 10.3214 -5.01708
8.90803 7.55659 -5.04315
8.17494 7.15459 -5.02909
6.7728 8.45476 -5.01278
6.79319 9.54326 -5.01076
3.04032 6.06999 -5.00133
2.17028 6.655 -5.00194
2.65749 3.61716 -5.0041
2.15929 2.93737 -5.00521
1.01025 3.98961 -5.00497
0.925015 5.68161 -5.00334
3.68335 3.35757 -5.00236
8.1919 6.1264 -5.02264
15.4625 6.96349 -5.43957
21.6265 9.05091 -5.56174
22.9158 10.6889 -5.48788
16.6525 9.44025 -5.67527
18.1729 11.0975 -5.8391
21.8823 15.9183 -4.99278
22.8916 17.4002 -4.76207
20.006 19.1912 -4.63248
21.1945 20.4353 -4.51602
17.7636 15.3752 -5.44534
18.4549 16.29 -5.30275
15.8192 15.593 -5.32112
16.7827 17.8919 -4.87767
17.6841 17.8458 -4.82759
5.59 19.2262 -5.00513
7.81847 17.622 -5.00447
7.63624 16.6501 -5.00311
5.38285 16.5886 -5.00193
4.07856 17.0805 -5.00132
9.96568 13.0907 -5.00332
9.2386 13.0469 -5.0034
11.2437 11.6492 -5.01065
11.2079 10.9076 -5.01832
9.75544 10.761 -5.02087
9.0662 11.4727 -5.01229
17.131 5.63648 -5.65407
4.43327 1.56331 -4.99932
10.72 3.6739 -5.01383
8.25526 2.48204 -4.98986
28.2775 7.09833 -5.35419
11.4791 2.29381 -4.98252
26.4188 3.66895 -5.06081
35.0227 17.6716 -4.11378
33.625 16.6889 -4.17126
31.158 15.8151 -4.31561
30.3402 16.1916 -4.36428
31.7125 14.3675 -4.70185
30.7304 13.6802 -4.98353
28.8393 13.9637 -4.89638
28.6776 14.7635 -4.80353
30.0034 9.31256 -5.55952
28.251 8.25175 -5.34383
36.1014 14.399 -4.47497
34.7914 13.159 -4.68974
34.4777 7.78181 -5.36195
32.8339 6.4969 -5.35133
46.8623 13.4645 -4.16629
45.37 12.6937 -4.28115
42.0208 12.5 -4.44542
43.0046 10.518 -4.98414
42.1058 9.90382 -5.11623
40.2677 10.4945 -4.99355
40.1849 11.2969 -4.91924
39.785 6.12703 -5.58101
38.4021 4.72972 -5.43203
47.547 10.0695 -4.55501
46.0729 8.96078 -4.82522
45.4345 4.43833 -5.51123
45.0922 3.62267 -5.55479
43.1966 2.50196 -5.52714
42.6051 3.09373 -5.84386
37.4765 3.16958 -5.28593
36.4845 3.43754 -5.24705
34.0412 3.8372 -5.20062
32.095 3.5174 -5.14322
2.27484 0.496478 -4.99757
3.12704 0.751618 -4.99709
10.9301 1.73934 -4.96908
31.2165 3.28668 -5.33695
31.5153 2.4302 -5.19362
33.6467 1.60778 -5.04893
41.5349 -7.08666 -4.85737
42.4966 -4.56221 -4.98632
43.8399 -4.80494 -4.98097
57.1988 8.61976 -4.86727
55.6605 7.90383 -4.93205
53.001 7.48992 -5.03516
52.2505 7.93928 -5.05718
53.1924 5.90732 -5.56974
50.365 5.94012 -5.58995
50.3356 6.81092 -5.47668
49.4763 1.38318 -5.76037
51.468 1.56308 -6.2965
51.764 0.248803 -6.35514
49.354 -0.657624 -5.92561
48.6079 -0.242475 -5.63411
57.7103 5.20981 -5.15129
56.3266 4.15023 -5.29702
54.2275 -2.92896 -5.63642
68.1773 1.97941 -5.09893
66.5498 1.49668 -5.14473
63.9259 1.44264 -5.28295
63.2567 2.03412 -5.32042
63.9417 -0.165755 -5.57614
62.8063 -0.656619 -5.69046
61.166 0.259358 -5.68054
61.2503 1.11411 -5.67974
60.2583 -3.24972 -5.86124
59.3852 -3.62873 -5.75349
61.5696 -4.78979 -6.15079
59.5508 -5.80592 -6.08859
58.7185 -5.49795 -5.81925
68.1725 -1.46901 -5.2928
66.5685 -2.33094 -5.37723
63.0309 -8.35759 -5.55165
69.9874 -20.3874 -4.52726
70.0617 -18.1437 -4.75226
87.2923 -20.9476 5.08349
87.2107 -21.0616 3.65288
90.0392 -17.8764 3.79964
80.4453 -28.3851 3.95081
82.8094 -25.895 3.2439
83.2561 -25.3986 3.99133
87.2173 -21.1118 0.106436
87.2336 -21.118 -1.41022
89.5251 -18.5484 -2.02679
89.97 -18.0359 -1.34065
77.792 -31.3342 3.48529
80.5632 -28.33 1.19101
77.794 -31.481 -1.71165
59.365 -17.4354 4.97603
63.3114 -20.4355 4.84523
63.2915 -20.5239 3.11792
71.3381 -27.0283 2.92352
72.5948 -28.0808 4.16871
19.6864 -1.06159 4.608
25.188 -2.13895 4.41404
34.5872 -5.06301 2.47424
36.2821 -5.63263 3.48417
71.4623 -27.2724 -1.8546
72.7563 -28.373 -0.777041
57.9215 -16.8289 -2.15781
60.7485 -18.7688 -2.70074
48.7318 -11.2846 -2.33806
61.7214 -19.4705 -3.62679
21.4821 -1.46008 1.96155
7.60156 -0.128945 2.46791
22.6827 -1.69956 0.758639
21.6215 -1.32034 -3.25536
22.9369 -1.45299 -4.22071
0.0196243 5.04334 3.06942
-0.0117607 0.974655 3.11015
-0.0106488 14.9669 3.02244
-0.0279436 11.4993 2.46964
-0.0289933 10.8556 3.23782
0.0239902 4.97523 -0.504036
0.0257849 4.92943 -2.01712
0.026349 1.5926 -2.5485
0.000780465 0.938969 -1.86404
0.0297406 19.1873 2.50721
-0.0139315 14.791 0.331764
0.0207187 19.0261 -2.68738
3.0402 19.98 4.37084
2.29123 19.9856 4.37247
3.04265 19.978 3.12047
2.293 19.9829 2.49687
0.791973 19.9999 2.5009
0.79252 19.9999 3.12621
8.31401 19.9402 4.26708
9.11265 19.9326 3.24976
8.493 19.9375 2.63436
6.76631 19.9495 2.35543
6.83326 19.9496 3.08227
3.14984 19.9724 -0.661
2.37162 19.9778 -0.988263
0.841344 19.9924 -2.50331
0.820306 19.9941 -1.87663
4.01245 19.964 -3.0909
7.40452 19.9415 -2.78366
6.88749 19.9427 -4.32658
5.28874 19.9541 -4.32854
9.88787 19.9226 2.3594
9.20378 19.9286 1.61777
11.3323 19.9036 2.63127
11.3534 19.9021 1.83358
9.38787 19.9255 0.735117
11.9729 13.8607 4.39409
11.9926 15.5135 4.40593
12.0191 18.0729 2.41158
12.0246 18.4274 3.12954
12.028 19.1066 -2.47538
12.0264 19.1241 -3.13569
12.0065 17.5252 -2.78419
11.9965 16.8487 -4.29308
12.0034 17.6258 -4.37431
11.9551 12.3645 2.59415
11.9739 13.8407 1.82139
11.8797 9.40686 2.59675
11.867 9.34851 1.6861
11.9541 12.2394 0.655623
11.9273 11.0404 -3.46744
11.8663 8.73395 -2.50855
11.8701 8.72283 -3.19402
11.909 10.1978 -4.40364
11.9257 10.9679 -4.31062
12.2192 8.10318 3.15608
11.8401 7.98815 -3.26478
13.8541 8.46525 3.80211
13.6995 8.76774 -2.45956
14.1229 11.9178 5.21868
14.0833 11.063 5.17607
14.0165 11.983 3.99929
13.8247 11.2022 3.34821
13.7803 9.48425 3.28401
13.893 9.41975 3.90377
14.8343 17.7859 4.7904
14.9712 18.5686 3.66307
14.8573 18.0042 3.14125
14.3999 16.2634 3.0701
14.5318 16.2979 3.78067
13.0921 12.2671 -0.790268
13.2863 11.382 -1.34923
13.9761 9.52127 -3.26116
13.7293 9.59133 -2.60479
14.3012 13.2404 -3.5797
14.9463 17.0741 -3.0245
15.1119 17.1433 -4.49008
14.7259 14.5576 -4.87297
15.1036 19.3172 2.78907
15.0075 18.7398 2.0072
15.2405 20.7603 2.99668
15.2751 20.7973 2.18805
15.0679 18.9636 1.05773
16.8335 21.3098 4.76373
20.705 21.1045 4.8951
17.4374 21.3357 0.20277
18.0493 21.3572 -3.97585
21.8124 21.0001 0.891571
21.9636 21.0638 -3.8191
23.5784 12.9649 4.51865
23.1964 17.2474 4.15509
23.4251 18.1536 -1.27637
23.4683 18.76 -1.93977
23.5047 20.2085 -2.11263
23.4729 20.2522 -1.25275
23.4008 17.3472 -2.36684
23.432 18.0243 -3.00132
23.7586 15.917 -2.45691
23.6162 15.7975 -3.23102
23.4447 17.3139 -4.07929
23.4477 18.0527 -3.90222
23.5718 10.8685 4.51951
23.541 8.82 3.91588
23.7778 8.85393 3.2409
24.5453 10.6197 2.45469
24.859 11.6539 1.73152
23.8285 10.4905 -3.23723
23.6639 11.4335 -3.75131
23.6173 8.84767 -3.1282
23.4792 8.82794 -3.72428
23.48 10.5673 -4.8664
23.5015 11.4487 -4.84612
23.6298 8.08342 2.9197
23.99 7.54424 4.02705
23.521 7.92207 -3.59759
25.5942 7.22397 4.21843
25.3899 7.76667 -2.10311
26.486 10.3922 5.78043
26.2773 9.56769 5.68184
26.3369 10.5964 4.62062
25.9611 9.83555 3.92633
25.7172 8.16644 3.80659
25.8232 8.05929 4.39795
28.5035 16.2157 5.37467
28.7817 16.9739 4.28853
28.5456 16.4045 3.71614
27.7109 14.8072 3.67516
27.8303 14.798 4.37671
25.5945 11.2841 -0.542677
25.567 10.3843 -1.00637
25.7417 8.49386 -2.87443
25.4961 8.60443 -2.1608
26.766 12.0766 -3.24666
28.2844 15.5895 -2.50355
28.3474 15.4143 -4.04957
27.5106 13.3787 -4.50656
29.0405 17.6907 3.3417
28.8168 17.1124 2.6044
29.5044 19.0524 3.59038
29.5302 19.0835 2.77791
28.9221 17.3546 1.65207
31.2459 19.2045 5.31842
34.979 18.0897 5.36145
31.6945 19.1554 0.745791
32.2187 19.1584 -3.4048
35.9337 17.9633 1.34906
35.9378 18.1517 -3.43457
36.0166 9.63886 4.55343
36.5029 13.8451 4.28737
36.8875 14.9463 -0.992197
37.0163 15.594 -1.64534
37.3506 17.0026 -1.74682
37.3557 16.9998 -0.903021
36.7011 14.2085 -2.07739
36.8355 14.8831 -2.73606
36.7288 12.6717 -2.24546
36.5071 12.5948 -3.02452
36.6501 14.1769 -3.81727
36.8161 14.913 -3.63327
34.9006 5.58359 3.85542
35.0835 5.55924 3.10485
36.4939 7.06959 1.22734
36.7521 7.95422 2.00385
35.5171 7.33351 -3.15076
35.591 8.28801 -3.69255
34.8636 5.81687 -2.99876
34.7377 5.81617 -3.5789
35.127 7.44053 -4.80795
35.3965 8.34913 -4.78777
34.7109 4.97977 2.78401
35.0112 4.54546 3.82888
34.4457 4.99458 -3.4783
36.2861 4.07279 4.12315
36.4141 4.68835 -2.10349
37.5403 7.27305 5.59517
37.2046 6.42869 5.51606
37.394 7.38798 4.41955
36.9251 6.71826 3.74113
36.5446 5.07938 3.58348
36.6015 4.9476 4.19977
40.1559 12.6673 5.31304
40.5345 13.4525 4.21806
40.2242 13.0007 3.67592
39.0898 11.4863 3.66222
39.3057 11.4132 4.36673
36.6698 8.02225 -0.584337
36.6199 7.14249 -1.07962
37.3063 7.15401 -3.17575
36.642 5.38743 -2.89764
36.5432 5.47773 -2.19032
38.0337 8.71896 -3.39119
39.89 12.1626 -2.65326
39.9417 11.9649 -4.15646
38.9748 10.2037 -4.52191
40.8638 14.1563 3.24813
40.5674 13.6607 2.48251
41.4948 15.4157 3.52428
41.5176 15.4576 2.71398
40.6851 13.8681 1.50572
43.2399 15.3174 5.24643
46.7787 13.7669 5.27314
43.6699 15.2974 0.657492
44.2158 15.2881 -3.50091
47.7156 13.5172 1.24829
47.8193 13.8049 -3.46165
46.7015 5.24552 4.34252
47.7467 9.40276 4.17317
48.2901 10.473 -1.03327
48.5147 11.0843 -1.69234
49.0174 12.4346 -1.80555
48.9949 12.4046 -0.981285
48.088 9.70031 -2.18857
48.2965 10.4195 -2.81933
47.872 8.17354 -2.28393
47.7217 8.18386 -3.06605
48.0745 9.7794 -3.90656
48.301 10.4769 -3.70696
44.979 1.52044 3.71712
45.0782 1.41345 3.06395
46.7696 2.57474 1.07155
47.1752 3.54124 1.75217
46.0584 3.10529 -3.27362
46.2287 4.03075 -3.82196
45.1572 1.64709 -3.36759
45.0485 1.69413 -3.85935
45.6972 3.22817 -4.98534
46.0559 4.03555 -4.96482
44.5825 0.96007 2.70948
44.873 0.512399 3.82297
44.6399 0.862466 -3.69161
46.214 0.0733074 4.09702
46.2816 0.448802 -2.28001
47.5592 3.27502 5.32149
47.2001 2.43531 5.35125
47.5022 3.47954 4.08511
46.9577 2.8337 3.442
46.3703 1.09116 3.55307
46.5144 0.944402 4.13496
50.6052 8.51194 4.6807
51.0025 9.18064 3.61944
50.6669 8.73045 3.00003
49.5458 7.29926 2.98761
49.69 7.2766 3.68772
46.7449 4.0013 -0.80525
46.52 3.08106 -1.35993
47.3729 2.76411 -3.82882
46.585 0.999172 -3.2258
46.3571 1.15182 -2.45556
48.0872 4.39551 -3.7481
50.153 7.70928 -3.18641
50.1355 7.51021 -4.69127
48.9835 5.58694 -5.08285
51.3451 9.87097 2.60764
50.9981 9.3605 1.86806
51.9951 11.1301 2.82518
52.0072 11.1586 1.9971
51.1028 9.54741 0.909303
53.7764 11.047 4.52332
57.291 9.34986 4.5404
54.1331 10.844 -0.0935327
54.6203 10.5949 -4.25761
58.1705 8.89143 0.55486
58.1767 8.9551 -4.18761
56.7868 0.769489 4.18419
58.0113 4.87109 3.71785
58.5444 5.68672 -1.67725
58.8035 6.27579 -2.32011
59.3749 7.60607 -2.48298
59.3797 7.6183 -1.64948
58.2816 4.96123 -2.76116
58.4996 5.59261 -3.4299
58.046 3.44432 -2.86224
57.8844 3.42362 -3.61524
58.2265 4.94631 -4.49044
58.4948 5.6185 -4.32919
55.0565 -2.97471 3.63382
55.2645 -3.09144 2.95434
56.9215 -2.02849 0.881166
57.3831 -1.00854 1.56619
55.964 -1.57667 -3.4734
56.1877 -0.733746 -4.08767
55.0167 -3.03368 -3.30309
54.9156 -3.05377 -3.85908
55.6292 -1.54634 -5.13182
55.999 -0.745937 -5.19103
54.7604 -3.67417 2.73325
54.9008 -4.07734 3.74755
54.4852 -3.90583 -3.71834
56.0343 -4.70423 3.98437
56.2316 -4.53405 -2.40525
58.0278 -1.6772 5.30216
57.4979 -2.46159 5.29839
57.9425 -1.57451 4.1612
57.2947 -2.1424 3.57743
56.3923 -3.75146 3.51714
56.5235 -3.84252 4.07258
61.7056 3.1363 4.39952
62.1505 3.6883 3.29676
61.7241 3.18664 2.77496
60.4573 1.87276 2.87097
60.6093 1.87894 3.54826
57.1854 -0.958007 -1.07267
56.7726 -1.91999 -1.53904
57.5764 -2.36427 -3.828
56.5757 -3.95947 -3.32409
56.4105 -3.83111 -2.62092
58.6707 -0.81325 -3.94332
61.1149 2.19961 -3.45965
61.112 1.88677 -4.98029
59.7572 0.183647 -5.24304
62.6091 4.25329 2.31757
62.1775 3.76615 1.61311
63.46 5.39804 2.47585
63.4704 5.39282 1.65986
62.3046 3.92614 0.635646
65.2014 5.12117 4.15779
68.4241 2.98659 4.22824
65.5058 4.71311 -0.384875
65.9712 4.33642 -4.52016
69.1714 2.27434 0.270064
69.1969 2.18944 -4.43213
66.7704 -5.41442 4.04986
68.5271 -1.59403 3.42284
69.1661 -1.03249 -1.80939
69.4658 -0.479038 -2.48477
70.2069 0.756806 -2.69608
70.2188 0.796483 -1.86753
68.7442 -1.73386 -2.85115
69.0541 -1.14 -3.5541
68.3331 -3.15415 -2.92226
68.1206 -3.17078 -3.67395
68.6504 -1.79953 -4.64092
69.0198 -1.16407 -4.48017
64.268 -8.81908 3.68428
64.4719 -9.05895 2.84984
66.432 -8.43985 0.837718
67.0407 -7.48484 1.57088
65.4931 -7.8152 -3.34322
65.8656 -6.98954 -3.92031
64.4396 -9.05205 -3.14595
64.3474 -9.05098 -3.73272
65.2687 -7.68307 -4.9691
65.7316 -6.92978 -5.00211
63.9341 -9.39546 2.52388
64.1237 -9.75055 3.79511
63.8627 -9.78635 -3.59637
65.4313 -10.4385 4.05477
65.6093 -10.4576 -2.27451
67.7636 -7.80062 5.24035
67.1919 -8.46342 5.25058
67.6293 -7.72432 4.12366
66.9377 -8.28984 3.65154
65.9828 -9.6335 3.5484
66.071 -9.74927 4.14992
71.6026 -3.43299 4.37852
72.1244 -2.91405 3.22087
71.7051 -3.29247 2.72139
70.3209 -4.47156 2.79612
70.5032 -4.537 3.5214
66.969 -7.09436 -1.16273
66.5533 -8.0246 -1.68432
67.3018 -8.86494 -3.98432
66.0901 -9.98478 -3.25038
65.9586 -9.80629 -2.55092
68.4376 -7.20744 -3.85682
71.0793 -4.44048 -3.40404
71.2417 -4.47576 -4.87579
69.4889 -6.43877 -5.26747
72.5871 -2.38512 2.29998
72.1462 -2.85794 1.56
73.513 -1.27843 2.42484
73.5325 -1.30377 1.61763
72.2811 -2.75834 0.579641
75.2059 -1.63457 4.16774
78.2674 -4.00156 4.3464
75.5241 -2.144 -0.397487
75.9832 -2.62744 -4.53428
79.0486 -4.78798 0.361648
79.0791 -4.99587 -4.39424
76.0809 -12.369 4.25149
78.1392 -8.54341 3.64173
78.7886 -8.13012 -1.71001
79.1109 -7.64891 -2.41304
79.9493 -6.47719 -2.64381
79.9692 -6.39661 -1.79499
78.3218 -8.8383 -2.70705
78.6847 -8.29842 -3.42613
77.7965 -10.2318 -2.75817
77.6346 -10.247 -3.53972
78.2675 -8.92783 -4.51786
78.6737 -8.32821 -4.35351
73.505 -15.7375 4.05537
73.6815 -15.8916 3.49778
75.4988 -15.2128 1.13318
76.0919 -14.4082 1.70594
74.5643 -14.8631 -3.11209
75.0364 -14.0654 -3.75632
73.3398 -16.0654 -2.79355
73.2021 -16.054 -3.37447
74.268 -14.7451 -4.69151
74.8483 -14.0427 -4.79748
73.0555 -16.5678 3.137
73.1773 -17.1255 3.97186
72.6034 -16.7614 -3.12314
73.7509 -18.2432 3.90267
73.9489 -18.525 -1.43639
75.6819 -15.9947 4.97429
75.197 -16.5564 5.01711
75.6673 -16.0328 3.70872
75.1805 -16.6294 3.1054
74.2224 -17.7721 3.17636
74.2302 -17.6993 3.81862
79.1519 -12.056 4.71812
79.6689 -11.4878 3.68434
79.2545 -11.9651 3.08394
78.1112 -13.2596 2.8453
78.1626 -13.1909 3.57033
75.6857 -16.0505 -0.087973
75.1692 -16.6536 -0.409815
75.2441 -16.5979 -2.13963
74.1948 -17.8661 -1.94748
74.1957 -17.8857 -1.30802
76.2311 -15.4684 -2.26149
78.5531 -12.8403 -2.26442
78.3539 -13.089 -3.89433
76.8393 -14.8072 -3.84403
80.1713 -10.9331 2.77663
79.7141 -11.4615 2.05062
81.1203 -9.85054 3.01393
81.128 -9.8548 2.21563
79.8281 -11.3479 1.16403
86.1488 -13.2876 4.80454
84.9087 -12.1797 4.80699
82.9619 -10.5204 2.79224
82.7018 -10.2666 3.5072
82.1342 -9.95264 -2.09814
82.1162 -9.95785 -2.75562
83.3269 -11.0117 -2.39289
83.8249 -11.5027 -3.89711
83.2369 -10.9827 -3.98247
87.2366 -14.3226 3.00869
86.1304 -13.3566 2.23399
89.4389 -16.2881 2.99233
89.4625 -16.3381 2.09077
87.3083 -14.4507 1.08077
88.1822 -15.3666 -3.00671
89.9371 -16.8936 -1.99851
89.947 -16.9243 -2.65494
88.8159 -15.9643 -3.91232
88.2354 -15.4426 -3.846
76.2122 -16.4714 5.59984
76.6847 -15.8905 5.57004
77.2067 -17.5517 5.62192
78.1822 -17.484 5.59887
79.1064 -16.1977 5.54902
78.597 -15.675 5.53957
83.0722 -14.4254 5.46861
82.7725 -13.7846 5.45488
86.1553 -16.7348 5.50082
85.9318 -14.4255 5.44333
84.9816 -13.2947 5.42254
84.825 -18.6097 5.56112
85.9678 -18.741 5.55429
83.6918 -21.223 5.63949
85.9717 -21.1344 5.61631
86.4699 -20.3802 5.5921
77.0061 -18.9307 5.66588
77.9831 -18.881 5.64136
75.6418 -20.5139 5.71712
75.9103 -21.2784 5.71569
77.825 -21.2559 5.68876
78.5367 -20.4371 5.66366
78.9775 -25.5044 5.78826
79.9303 -25.7166 5.78925
77.6139 -27.5659 5.8597
77.415 -28.4547 5.88761
79.524 -28.2979 5.87014
80.1674 -27.5658 5.84298
76.6125 -27.0752 5.84729
75.1951 -22.0106 5.73314
70.6013 -16.5896 6.17431
67.4459 -10.7045 6.00885
67.6352 -8.75502 5.91899
71.5753 -13.8198 6.40147
71.5888 -11.5511 6.47109
71.8541 -5.52297 5.34544
72.0632 -3.72223 5.1079
75.3797 -4.31039 5.04243
75.3528 -2.59649 4.88435
74.5219 -8.42955 5.87049
74.5327 -7.39173 5.69584
76.013 -9.74563 5.89915
76.7618 -9.27284 5.84117
76.858 -7.40442 5.44731
76.1536 -6.83118 5.33482
68.5702 -16.3095 6.46328
75.0801 -28.1233 5.88349
61.693 -7.67592 5.92591
70.2591 -22.6244 5.78129
60.8803 -10.7294 5.74477
65.4307 4.14377 4.86497
65.6135 2.48331 4.96532
66.5674 0.0350941 5.24771
67.314 -0.494625 5.29864
65.1618 -0.53911 5.72239
65.1166 -1.84257 5.89298
66.6602 -2.93255 5.77977
67.3598 -2.39837 5.67988
63.2138 -6.56605 5.89663
62.2534 -5.16383 6.20297
62.558 -7.115 5.88299
62.1796 2.85778 5.12294
62.0759 1.03581 5.39398
58.1537 -2.77558 5.9041
58.36 -4.86693 5.87769
54.1547 10.0758 5.18227
54.5626 8.46395 5.24253
56.5308 5.72166 5.49134
54.373 5.15669 5.76726
54.4931 4.10202 5.89709
56.2274 3.24809 5.9234
56.843 3.86476 5.84281
53.2704 -0.138068 6.1199
53.0902 -2.04384 5.95789
51.13 8.27243 5.38662
51.2498 6.45805 5.51032
48.3122 3.11118 5.90274
47.9701 2.29565 5.92494
48.4058 -0.0915003 5.82641
49.2516 -0.032216 5.96326
52.7571 -3.80984 5.73819
53.49 -4.30322 5.74426
55.1457 -6.34557 5.64773
56.9328 -7.43287 5.84391
67.9766 -20.8469 5.80113
57.0854 -8.52483 5.85121
67.0959 -20.288 5.7753
67.0166 -21.2231 5.68846
61.688 -14.7927 5.4798
62.7042 -19.1881 5.62741
42.8675 -3.61739 5.23395
42.8401 -0.0557875 5.77501
41.8569 0.264977 5.99704
40.7475 -1.82161 5.6043
41.1479 -3.46378 5.27083
32.2914 -0.844323 5.15681
30.4023 1.38366 5.54392
27.6709 1.88213 5.55884
23.3038 -0.268117 5.11512
24.2302 -1.26326 5.13582
15.41 1.48622 5.06398
13.5379 2.07851 5.08038
15.8964 2.2662 5.07252
34.7072 -1.72604 5.19466
34.3686 -0.932545 5.24998
38.3219 -2.22654 5.32791
39.9544 -1.16278 5.82256
39.0719 1.74122 6.2916
37.1831 1.25342 5.71086
20.8536 3.88568 5.56548
19.921 3.82178 5.56617
43.6184 14.3311 5.87927
44.0845 12.7044 5.86253
45.3988 10.4161 5.88832
46.2412 10.0582 5.97115
43.9936 9.50342 6.16036
46.0119 7.53173 6.18226
46.6055 8.18415 6.18374
43.4334 3.97713 6.33012
42.1814 5.42186 6.66287
40.9506 4.91773 6.67058
41.9312 2.52291 6.53284
42.6919 2.14948 6.26964
40.6879 12.4349 6.01196
40.8799 10.5719 6.10275
37.1127 4.43741 5.96511
31.7566 18.2869 5.96437
32.4307 16.7347 5.97528
34.0916 14.6329 6.08524
34.9637 14.333 6.13248
32.8294 13.6354 6.41294
33.1802 12.4686 6.49308
35.0558 11.8255 6.36282
35.5679 12.5309 6.34154
33.1241 8.67121 6.48802
30.8774 8.57641 6.79455
31.4783 6.49216 6.48274
32.2926 6.07583 6.2903
29.0348 16.0426 6.08867
29.432 14.2498 6.21628
27.1832 7.46173 6.131
10.2535 2.50184 5.0117
12.7224 3.85953 5.09468
8.59532 3.60307 5.00671
15.3357 9.47589 5.76952
14.5556 11.0419 5.83307
20.9002 8.75477 6.23029
20.0759 9.02577 6.32824
21.1642 10.5476 6.2975
18.8207 10.9329 6.45782
16.1368 16.1388 5.67372
15.3639 17.7649 5.52386
18.4801 19.1987 5.52062
17.4955 20.5702 5.44288
20.1147 15.1531 6.30902
19.5065 16.0629 6.1328
22.0372 15.0386 6.26211
22.4043 15.8314 6.23985
21.4721 17.4764 5.88431
20.5082 17.5507 5.78648
9.6277 4.81268 5.01734
6.86032 5.29924 5.00197
3.01256 3.77621 4.99322
2.24653 3.23771 4.9932
2.94701 6.24689 4.99525
2.18641 6.95117 4.99504
0.707527 6.0091 4.9922
0.812474 4.13558 4.99151
8.1927 7.29693 5.0298
7.46798 6.84382 5.01154
8.54597 9.87242 5.03386
8.49983 10.6032 5.02503
6.78392 9.85789 5.01281
6.68368 8.48319 5.0102
2.69404 13.3616 5.00005
2.67198 15.7856 5.00051
1.82359 16.8428 5.00165
0.685115 15.5555 5.00382
0.797263 13.9077 5.00189
3.74823 16.8615 4.99856
3.00257 17.6071 4.99863
5.26113 17.0989 4.9965
5.26928 17.8776 4.99556
3.78373 19.2443 4.995
3.03468 19.2129 4.9964
9.84865 12.0923 5.01522
9.13277 12.6882 5.0079
11.1076 14.949 4.99705
9.86495 16.3749 4.99397
9.51598 15.5881 4.99637
85.4679 -12.9904 -4.59172
84.806 -14.8645 -4.53838
84.3456 -11.991 -4.60756
83.7644 -16.0409 -4.49929
82.6073 -17.329 -4.45701
81.5492 -17.1855 -4.45283
81.3526 -15.2861 -4.49777
83.2199 -10.987 -4.62028
81.2133 -13.0265 -4.55254
81.4793 -10.4836 -4.61578
82.0906 -9.9936 -4.63263
82.2145 -18.9283 -4.41363
81.1305 -18.8925 -4.4078
82.6869 -20.6843 -4.37137
79.6491 -20.6313 -4.35629
83.1686 -22.4283 -4.32868
82.818 -24.9067 -4.25946
80.5511 -25.1576 -4.23582
78.1001 -22.3064 -4.30785
78.739 -24.8774 -4.23488
76.8069 -24.7548 -4.231
76.588 -23.8909 -4.25633
71.7219 -20.9813 -4.42094
70.7319 -13.8272 -5.61763
72.7299 -13.1732 -5.58367
74.3659 -12.3682 -5.51044
76.1061 -11.5773 -5.53774
75.6638 -4.96872 -5.14294
26.8269 1.25843 -4.89064
32.2228 2.46128 -5.10201
32.7138 -0.512613 -4.92024
31.7295 -0.483796 -4.8935
43.087 0.818503 -5.43681
44.5184 0.0391737 -5.36421
43.1234 -2.36809 -5.30769
35.2433 -3.14789 -4.87102
39.8768 -6.43655 -4.8701
